2.940350770950317383e-01 -2.947740554809570312e-01 -3.718266636133193970e-02
2.146436274051666260e-01 -2.382058799266815186e-01 -1.517335772514343262e-01
3.842204213142395020e-01 2.355013638734817505e-01 4.565465496852993965e-04
3.125081062316894531e-01 2.056566327810287476e-01 -1.772553920745849609e-01
2.812771201133728027e-01 -1.420963406562805176e-01 -1.695200502872467041e-01
2.346530854701995850e-01 -2.301143705844879150e-01 -1.471596658229827881e-01
2.976585328578948975e-01 -2.589443027973175049e-01 7.193517684936523438e-02
2.464534044265747070e-01 -2.129867225885391235e-01 -1.521593928337097168e-01
2.831427156925201416e-01 -2.818114161491394043e-01 2.979061007499694824e-02
1.810317635536193848e-01 -4.547385871410369873e-02 2.655563950538635254e-01
2.716558873653411865e-01 -2.940945625305175781e-01 4.043669998645782471e-02
2.164054512977600098e-01 3.640299290418624878e-02 -2.440258562564849854e-01
2.605945169925689697e-01 -2.720701098442077637e-01 1.995881497859954834e-01
2.165555059909820557e-01 -5.681755021214485168e-03 -2.401981949806213379e-01
2.292775213718414307e-01 3.320327401161193848e-02 2.376195788383483887e-01
2.070373296737670898e-01 5.371841788291931152e-02 -2.477209717035293579e-01
3.120240271091461182e-01 1.430631726980209351e-01 -1.909008771181106567e-01
2.755250930786132812e-01 1.374030113220214844e-01 1.785531938076019287e-01
1.743093281984329224e-01 1.332279741764068604e-01 2.202459126710891724e-01
3.112347126007080078e-01 1.809584796428680420e-01 -1.844559907913208008e-01
2.883009612560272217e-01 1.852389574050903320e-01 1.444316059350967407e-01
2.829301953315734863e-01 -3.071917593479156494e-01 -2.880190126597881317e-02
4.045618772506713867e-01 2.356529533863067627e-01 -6.452815979719161987e-02
2.790647447109222412e-01 -3.159996867179870605e-01 -4.167270287871360779e-02
2.548581361770629883e-01 -1.620196551084518433e-01 2.318292260169982910e-01
3.047511875629425049e-01 -1.146394312381744385e-01 2.093665301799774170e-01
3.034664988517761230e-01 -2.845050692558288574e-01 -4.527694731950759888e-02
3.780736327171325684e-01 2.523016929626464844e-01 -7.623593788594007492e-03
2.710192799568176270e-01 2.053090929985046387e-01 1.428398489952087402e-01
2.759941518306732178e-01 2.303377985954284668e-01 1.219390705227851868e-01
2.674301564693450928e-01 2.000842392444610596e-01 -2.070985436439514160e-01
2.131925821304321289e-01 1.997164636850357056e-02 -2.439778149127960205e-01
3.656367361545562744e-01 2.319220006465911865e-01 -1.199996098875999451e-01
1.805806756019592285e-01 1.578089445829391479e-01 -2.484266310930252075e-01
2.724071741104125977e-01 -3.113075494766235352e-01 6.071020383387804031e-03
2.146707326173782349e-01 -8.393163979053497314e-02 -2.254368513822555542e-01
2.058487534523010254e-01 -1.714282669126987457e-02 -2.420936226844787598e-01
2.569853663444519043e-01 -6.479095667600631714e-02 -2.121134847402572632e-01
2.283883392810821533e-01 -1.314029842615127563e-01 2.476267069578170776e-01
2.555828988552093506e-01 -1.416210532188415527e-01 2.343141287565231323e-01
3.053091466426849365e-01 2.178384363651275635e-01 -1.851593703031539917e-01
1.925599426031112671e-01 7.936964929103851318e-02 -2.520775496959686279e-01
1.975744664669036865e-01 1.392947603017091751e-02 -2.481625080108642578e-01
1.978654712438583374e-01 -2.402408719062805176e-01 -1.579717099666595459e-01
2.763121128082275391e-01 2.173720300197601318e-01 1.312022060155868530e-01
2.461773604154586792e-01 -1.956746578216552734e-01 2.292772382497787476e-01
3.737543821334838867e-01 2.399945259094238281e-01 1.297602988779544830e-02
3.233975470066070557e-01 -2.101914286613464355e-01 -9.999309480190277100e-02
2.077468931674957275e-01 -9.528716653585433960e-02 2.584265470504760742e-01
1.866732537746429443e-01 1.753059029579162598e-01 -2.447130978107452393e-01
3.626618981361389160e-01 2.298692762851715088e-01 3.906264901161193848e-02
2.114667892456054688e-01 -2.836150527000427246e-01 -1.170486658811569214e-01
1.874690353870391846e-01 6.356809288263320923e-02 2.428682148456573486e-01
1.817520558834075928e-01 -8.088915050029754639e-02 -2.428626716136932373e-01
2.975664734840393066e-01 -1.988548934459686279e-01 2.050822675228118896e-01
3.603432178497314453e-01 2.548679411411285400e-01 -1.162699982523918152e-01
1.885942220687866211e-01 1.842655986547470093e-01 -2.322580218315124512e-01
2.052345871925354004e-01 -2.275045812129974365e-01 -1.636923849582672119e-01
2.420155405998229980e-01 -1.175381541252136230e-01 2.430202364921569824e-01
2.452456802129745483e-01 -1.853353157639503479e-02 -2.272180914878845215e-01
1.833978295326232910e-01 8.994397521018981934e-02 2.352437376976013184e-01
1.823756396770477295e-01 1.697973012924194336e-01 -2.249898761510848999e-01
2.708760797977447510e-01 2.211984097957611084e-01 -1.994492411613464355e-01
3.057743012905120850e-01 -2.262408286333084106e-01 1.489773988723754883e-01
3.903490900993347168e-01 2.525979280471801758e-01 -7.944723963737487793e-02
2.773952782154083252e-01 -2.901672124862670898e-01 5.708345770835876465e-02
3.488798141479492188e-01 2.383956313133239746e-01 -1.352074146270751953e-01
2.250320315361022949e-01 -2.757505774497985840e-01 -1.161855757236480713e-01
2.232641428709030151e-01 -1.148282736539840698e-01 -2.126121222972869873e-01
2.642373442649841309e-01 -2.716907262802124023e-01 1.838364601135253906e-01
3.367769122123718262e-01 -2.420127093791961670e-01 -5.195841938257217407e-02
1.832432448863983154e-01 -9.863132610917091370e-03 -2.492066919803619385e-01
1.867140829563140869e-01 -2.177742719650268555e-01 -1.775279790163040161e-01
2.420061379671096802e-01 -2.965135276317596436e-01 2.007429599761962891e-01
2.321369349956512451e-01 -1.564361453056335449e-01 2.426536977291107178e-01
2.046325951814651489e-01 -2.717464268207550049e-01 -1.303547620773315430e-01
3.396789729595184326e-01 -2.259771525859832764e-01 -1.801439002156257629e-02
2.893722355365753174e-01 -3.048770725727081299e-01 -5.123566836118698120e-02
3.499659299850463867e-01 2.123064845800399780e-01 -1.433915197849273682e-01
3.357221484184265137e-01 2.361125349998474121e-01 -1.554052531719207764e-01
2.619696259498596191e-01 -2.922192811965942383e-01 9.247217327356338501e-02
1.984279751777648926e-01 1.657591760158538818e-01 -2.486735284328460693e-01
1.903743445873260498e-01 -2.302162349224090576e-01 -1.680644750595092773e-01
2.436812072992324829e-01 1.090992689132690430e-01 -2.330124229192733765e-01
1.901152878999710083e-01 1.022895947098731995e-01 -2.588195800781250000e-01
2.214025557041168213e-01 1.737175881862640381e-01 1.863490939140319824e-01
2.008001506328582764e-01 -6.045539677143096924e-02 2.608060240745544434e-01
3.412207067012786865e-01 2.567633092403411865e-01 4.048095270991325378e-02
2.532150745391845703e-01 -2.091230750083923340e-01 2.234482169151306152e-01
2.305490523576736450e-01 -2.569658756256103516e-01 2.240265160799026489e-01
1.713130921125411987e-01 -1.950789242982864380e-01 -1.953071355819702148e-01
3.550496101379394531e-01 2.638030052185058594e-01 1.502411253750324249e-02
2.633509635925292969e-01 -1.846129447221755981e-01 2.239445447921752930e-01
2.340824604034423828e-01 1.872237324714660645e-01 1.734780967235565186e-01
2.957485020160675049e-01 -2.412445843219757080e-01 1.431942880153656006e-01
3.014508485794067383e-01 1.532494276762008667e-01 -1.966233700513839722e-01
1.903641372919082642e-01 1.402308940887451172e-01 2.131979018449783325e-01
3.943064212799072266e-01 2.570227086544036865e-01 -4.490245878696441650e-02
2.187608480453491211e-01 -2.194508463144302368e-01 -1.627762019634246826e-01
2.350647151470184326e-01 1.873912960290908813e-01 -2.254088371992111206e-01
1.702066808938980103e-01 -2.305209487676620483e-01 -1.748802661895751953e-01
3.019251823425292969e-01 1.979878693819046021e-01 -1.868300586938858032e-01
3.497273623943328857e-01 2.379347681999206543e-01 4.835891351103782654e-02
1.995431035757064819e-01 -1.225695759057998657e-01 2.594747245311737061e-01
2.524135708808898926e-01 -3.005570471286773682e-01 1.082179248332977295e-01
2.192648649215698242e-01 -2.527831196784973145e-01 -1.382804512977600098e-01
2.080330252647399902e-01 6.313773244619369507e-02 2.371973097324371338e-01
1.681628674268722534e-01 6.119576841592788696e-02 2.537937164306640625e-01
2.005534470081329346e-01 -1.562111312523484230e-03 -2.456993013620376587e-01
1.751331984996795654e-01 1.738414727151393890e-02 2.651811242103576660e-01
3.398293554782867432e-01 -2.365393340587615967e-01 -7.020432502031326294e-02
2.574846148490905762e-01 -3.071982264518737793e-01 9.053125977516174316e-02
2.055184990167617798e-01 1.793135106563568115e-01 -2.443026006221771240e-01
2.541569471359252930e-01 2.094441056251525879e-01 -2.114706039428710938e-01
2.733036577701568604e-01 2.498901635408401489e-01 1.082810908555984497e-01
1.682272851467132568e-01 1.252963542938232422e-01 -2.461870610713958740e-01
1.831186860799789429e-01 -5.855086445808410645e-02 -2.477112561464309692e-01
2.291656285524368286e-01 -6.964623928070068359e-02 2.503463327884674072e-01
2.786180973052978516e-01 1.854768395423889160e-01 -2.044044435024261475e-01
2.236914932727813721e-01 -2.218515723943710327e-01 2.337684631347656250e-01
2.637648284435272217e-01 2.408767938613891602e-01 1.216429471969604492e-01
4.036048650741577148e-01 2.401904910802841187e-01 -4.383047297596931458e-02
3.027474284172058105e-01 -2.803072929382324219e-01 -2.712856605648994446e-02
1.607589572668075562e-01 1.276865601539611816e-01 2.253665626049041748e-01
2.455404400825500488e-01 -2.337835431098937988e-01 2.219111472368240356e-01
2.180859744548797607e-01 1.243202388286590576e-01 2.115772962570190430e-01
1.924775838851928711e-01 -3.824332356452941895e-02 -2.424777150154113770e-01
2.217374444007873535e-01 -2.788013219833374023e-01 2.237882614135742188e-01
3.228541314601898193e-01 2.289001643657684326e-01 8.544789254665374756e-02
2.266683280467987061e-01 -9.907671064138412476e-02 -2.164254635572433472e-01
3.528682291507720947e-01 2.543046474456787109e-01 2.826623059809207916e-02
2.267072498798370361e-01 1.226370222866535187e-02 -2.386006414890289307e-01
2.274473309516906738e-01 2.258041799068450928e-01 1.517313569784164429e-01
1.889174282550811768e-01 -1.818067431449890137e-01 -1.969043016433715820e-01
2.014425694942474365e-01 -1.421675980091094971e-01 2.565165758132934570e-01
2.905589044094085693e-01 -2.706413865089416504e-01 6.406537443399429321e-02
2.448905706405639648e-01 -2.514871060848236084e-01 2.187549471855163574e-01
1.744413673877716064e-01 1.489649862051010132e-01 2.131123095750808716e-01
2.482221275568008423e-01 1.616813242435455322e-01 1.811460852622985840e-01
2.141350507736206055e-01 -2.621311247348785400e-01 2.301555573940277100e-01
2.572370171546936035e-01 -3.033953011035919189e-01 7.533346861600875854e-02
2.249726951122283936e-01 -3.166006803512573242e-01 2.099375128746032715e-01
2.569110989570617676e-01 -3.281239867210388184e-01 1.956643164157867432e-02
3.804375529289245605e-01 2.857972383499145508e-01 -6.670892983675003052e-02
2.137223035097122192e-01 -1.178898885846138000e-01 2.548039555549621582e-01
2.546534538269042969e-01 -3.396306633949279785e-01 -4.357494041323661804e-02
2.559927403926849365e-01 2.656446695327758789e-01 1.059835106134414673e-01
2.348924428224563599e-01 -1.807915270328521729e-01 2.370417714118957520e-01
1.667411029338836670e-01 -2.157712727785110474e-01 -1.850431263446807861e-01
3.833968937397003174e-01 2.706323862075805664e-01 -4.097907245159149170e-02
2.089672088623046875e-01 -1.686065793037414551e-01 2.496023774147033691e-01
2.690401971340179443e-01 -1.692290753126144409e-01 2.240473181009292603e-01
3.538293838500976562e-01 2.144763320684432983e-01 6.375128775835037231e-02
3.303037881851196289e-01 2.387026399374008179e-01 6.970217823982238770e-02
2.031235694885253906e-01 -2.124181687831878662e-01 -1.744419932365417480e-01
1.905712783336639404e-01 1.260204613208770752e-01 2.194125801324844360e-01
1.501906365156173706e-01 5.998658761382102966e-02 2.496571540832519531e-01
3.863775730133056641e-01 2.073331773281097412e-01 2.403983846306800842e-02
1.920011937618255615e-01 -2.610472440719604492e-01 -1.448294371366500854e-01
3.431144356727600098e-01 2.604005336761474609e-01 -1.316502690315246582e-01
1.959408819675445557e-01 -8.000534772872924805e-02 -2.324396818876266479e-01
1.905012428760528564e-01 2.791491150856018066e-02 -2.512024641036987305e-01
2.455006241798400879e-01 -3.177772760391235352e-01 1.095072105526924133e-01
3.316623270511627197e-01 2.508932054042816162e-01 5.715856701135635376e-02
1.923244297504425049e-01 -2.034458965063095093e-01 -1.840911209583282471e-01
2.190540283918380737e-01 1.971438080072402954e-01 1.737920045852661133e-01
3.173059821128845215e-01 2.546747326850891113e-01 6.837120652198791504e-02
1.817430555820465088e-01 -1.796525344252586365e-02 2.623004615306854248e-01
1.783181726932525635e-01 1.565459072589874268e-01 -2.326950132846832275e-01
2.510848045349121094e-01 2.390093356370925903e-01 -2.043880224227905273e-01
1.664862781763076782e-01 8.583817631006240845e-02 2.467044889926910400e-01
2.203516662120819092e-01 -2.396430075168609619e-01 2.317615002393722534e-01
3.168571591377258301e-01 2.424587160348892212e-01 7.975610345602035522e-02
3.902969360351562500e-01 2.657128870487213135e-01 -7.055363804101943970e-02
2.722473442554473877e-01 -3.188818693161010742e-01 -1.983946189284324646e-02
2.167155742645263672e-01 -1.841220557689666748e-01 2.438158988952636719e-01
2.269827425479888916e-01 -1.050746291875839233e-01 2.504444420337677002e-01
2.067004293203353882e-01 -3.290230780839920044e-02 -2.393419742584228516e-01
2.328558862209320068e-01 1.247387826442718506e-01 2.057034373283386230e-01
2.571375668048858643e-01 2.301551699638366699e-01 1.336860805749893188e-01
2.491730153560638428e-01 -2.983605265617370605e-01 1.606246829032897949e-01
1.928628981113433838e-01 -2.914679646492004395e-01 -1.203653886914253235e-01
1.978683769702911377e-01 -9.774316102266311646e-02 -2.274085581302642822e-01
2.034253031015396118e-01 2.107142657041549683e-01 -2.365366369485855103e-01
2.033548951148986816e-01 2.010134756565093994e-01 1.771591007709503174e-01
2.846571803092956543e-01 2.382067441940307617e-01 -1.880727559328079224e-01
3.419078886508941650e-01 2.292557209730148315e-01 6.531763821840286255e-02
2.121141552925109863e-01 1.521843224763870239e-01 -2.046541124582290649e-01
3.091300725936889648e-01 2.280367016792297363e-01 -1.149346008896827698e-01
3.804608285427093506e-01 2.756787538528442383e-01 -8.105220645666122437e-02
3.001489341259002686e-01 -2.751547396183013916e-01 3.195966826751828194e-03
1.569356918334960938e-01 -3.079892881214618683e-02 2.740850150585174561e-01
1.719674468040466309e-01 5.958890542387962341e-03 -2.536206245422363281e-01
2.230858504772186279e-01 -1.449473500251770020e-01 -2.010359019041061401e-01
1.984534263610839844e-01 1.228516846895217896e-01 -2.531047165393829346e-01
2.642346322536468506e-01 -1.392916440963745117e-01 -1.819302439689636230e-01
1.966552138328552246e-01 1.760427206754684448e-01 1.935960501432418823e-01
2.182838767766952515e-01 -1.474583297967910767e-01 2.495873868465423584e-01
1.511272639036178589e-01 7.448800653219223022e-02 -2.620393037796020508e-01
1.773652136325836182e-01 9.025985747575759888e-02 -2.623520791530609131e-01
2.350720465183258057e-01 -3.080328404903411865e-01 1.927224397659301758e-01
1.481727361679077148e-01 1.264029592275619507e-01 2.343987673521041870e-01
1.618749797344207764e-01 -5.827483162283897400e-02 2.706940770149230957e-01
1.977380216121673584e-01 1.441741138696670532e-01 -2.109027802944183350e-01
2.699351012706756592e-01 -1.835555136203765869e-01 -1.556684225797653198e-01
2.363477945327758789e-01 -2.430966198444366455e-01 -1.366505026817321777e-01
2.762003242969512939e-01 -2.734634280204772949e-01 1.214830577373504639e-01
2.366796880960464478e-01 -3.121420145034790039e-01 1.707179695367813110e-01
2.526072263717651367e-01 1.930964440107345581e-01 -2.162654101848602295e-01
1.966411024332046509e-01 -8.531431108713150024e-02 2.624806463718414307e-01
3.358015418052673340e-01 1.861806064844131470e-01 -1.638016849756240845e-01
1.855294704437255859e-01 -1.062332689762115479e-01 -2.360544502735137939e-01
1.714468896389007568e-01 -3.086531534790992737e-02 2.667878568172454834e-01
2.883037626743316650e-01 2.416397035121917725e-01 1.044038608670234680e-01
1.988168358802795410e-01 -6.371043622493743896e-02 -2.355577349662780762e-01
2.655577063560485840e-01 -3.095129728317260742e-01 4.451581835746765137e-02
2.713447213172912598e-01 -2.943573594093322754e-01 7.071607559919357300e-02
1.659942716360092163e-01 -1.114193499088287354e-01 -2.127626836299896240e-01
2.662541866302490234e-01 -2.875271141529083252e-01 1.186350286006927490e-01
2.461461126804351807e-01 -3.449183106422424316e-01 1.094826124608516693e-02
1.739533245563507080e-01 -4.460129514336585999e-02 -2.518531084060668945e-01
3.188065886497497559e-01 2.309525907039642334e-01 -1.610497981309890747e-01
2.833207249641418457e-01 -2.974857985973358154e-01 3.529550973325967789e-03
2.601458430290222168e-01 -3.284248113632202148e-01 3.334711072966456413e-03
1.711278259754180908e-01 6.510180234909057617e-02 -2.642966508865356445e-01
3.472187221050262451e-01 2.769808173179626465e-01 1.069369912147521973e-02
1.893939524888992310e-01 1.582826524972915649e-01 2.048714458942413330e-01
1.562402993440628052e-01 -1.003009825944900513e-02 2.701568901538848877e-01
2.317047119140625000e-01 2.292515337467193604e-01 -2.240519523620605469e-01
1.452988088130950928e-01 1.106365919113159180e-01 2.394930720329284668e-01
2.563546597957611084e-01 2.241072952747344971e-01 -2.063040137290954590e-01
1.726087331771850586e-01 -2.495395392179489136e-01 -1.611947864294052124e-01
1.434565782546997070e-01 -2.643506228923797607e-01 -1.608824431896209717e-01
1.719202101230621338e-01 1.132159531116485596e-01 -2.612217664718627930e-01
2.746538519859313965e-01 -1.358260065317153931e-01 2.254019230604171753e-01
3.377896249294281006e-01 2.211763262748718262e-01 -1.518998146057128906e-01
3.165228068828582764e-01 2.326617985963821411e-01 -1.456069499254226685e-01
1.798317581415176392e-01 -2.720131874084472656e-01 -1.418461054563522339e-01
2.480977177619934082e-01 -3.468320071697235107e-01 -4.941872321069240570e-03
2.609621882438659668e-01 3.766438364982604980e-02 -2.258008122444152832e-01
2.321429252624511719e-01 8.399249613285064697e-02 -2.389723658561706543e-01
2.128556668758392334e-01 -7.250373065471649170e-02 2.568828165531158447e-01
2.811202406883239746e-01 -2.387543618679046631e-01 -1.120259314775466919e-01
1.722865998744964600e-01 5.035950243473052979e-02 -2.591023147106170654e-01
3.383923172950744629e-01 2.491844594478607178e-01 -1.422882378101348877e-01
3.360040187835693359e-01 2.860853672027587891e-01 1.897249184548854828e-02
1.793561726808547974e-01 1.459801793098449707e-01 -2.163587808609008789e-01
1.634319722652435303e-01 -8.293801546096801758e-02 -2.282715886831283569e-01
2.772606909275054932e-01 -3.090149462223052979e-01 -8.625607006251811981e-03
1.992256343364715576e-01 1.502541601657867432e-01 -2.515104711055755615e-01
1.432866007089614868e-01 -2.775721848011016846e-01 -1.520734876394271851e-01
2.379784286022186279e-01 -1.945512890815734863e-01 -1.684554815292358398e-01
1.813681721687316895e-01 -2.529661357402801514e-02 -2.474120855331420898e-01
2.398603707551956177e-01 -2.704244554042816162e-01 2.174120992422103882e-01
2.286959737539291382e-01 -2.991342842578887939e-01 2.170963585376739502e-01
2.701865732669830322e-01 -2.595258057117462158e-01 1.987490803003311157e-01
2.390022128820419312e-01 -6.137572345323860645e-04 -2.323758006095886230e-01
2.450904399156570435e-01 -3.080521225929260254e-01 1.456620097160339355e-01
2.883554697036743164e-01 -2.950184941291809082e-01 -1.140214689075946808e-02
3.957667052745819092e-01 2.368116080760955811e-01 -7.890726625919342041e-02
1.854363381862640381e-01 2.092607617378234863e-01 1.777304410934448242e-01
2.991589009761810303e-01 2.018012255430221558e-01 -1.131407991051673889e-01
1.940990239381790161e-01 2.006293237209320068e-01 -2.271126359701156616e-01
2.004190981388092041e-01 1.701029092073440552e-01 -2.058803737163543701e-01
2.801305055618286133e-01 2.580218911170959473e-01 9.661387652158737183e-02
3.048209249973297119e-01 2.138870507478713989e-01 -1.232556328177452087e-01
2.078564912080764771e-01 2.259493917226791382e-01 -2.308758497238159180e-01
1.343712061643600464e-01 -2.896795868873596191e-01 -1.468381583690643311e-01
1.985369026660919189e-01 -1.678559184074401855e-02 2.576082944869995117e-01
3.865104615688323975e-01 2.516928315162658691e-01 -2.214279398322105408e-02
2.383631318807601929e-01 2.166489362716674805e-01 -2.169271707534790039e-01
1.791753172874450684e-01 -9.162090718746185303e-02 2.675283253192901611e-01
2.117233425378799438e-01 -3.093759417533874512e-01 -9.527216106653213501e-02
2.346622794866561890e-01 1.722042262554168701e-01 -2.286071032285690308e-01
2.703703641891479492e-01 2.168795317411422729e-01 -1.610647141933441162e-01
1.394864618778228760e-01 -1.714026629924774170e-01 -2.019883394241333008e-01
1.328049302101135254e-01 -1.849656999111175537e-01 -1.974426507949829102e-01
3.045540452003479004e-01 2.826704978942871094e-01 6.148010864853858948e-02
1.807198971509933472e-01 1.048184633255004883e-01 2.304201126098632812e-01
2.051543295383453369e-01 2.335996329784393311e-01 -2.164340913295745850e-01
1.861614435911178589e-01 -7.385609298944473267e-02 2.656450271606445312e-01
1.393056362867355347e-01 9.111301600933074951e-02 2.224850952625274658e-01
3.043122291564941406e-01 2.585358917713165283e-01 7.682429254055023193e-02
1.575100123882293701e-01 1.017796471714973450e-01 1.999786645174026489e-01
2.069283574819564819e-01 -2.983900308609008789e-01 -1.072048693895339966e-01
2.515153884887695312e-01 1.999774575233459473e-01 -1.768667846918106079e-01
1.582495421171188354e-01 3.430480509996414185e-02 2.570348978042602539e-01
1.633004397153854370e-01 1.125686168670654297e-01 2.330538332462310791e-01
1.593690663576126099e-01 1.752582937479019165e-02 2.613251507282257080e-01
2.319940328598022461e-01 -2.843562960624694824e-01 -1.048960462212562561e-01
1.603824347257614136e-01 8.669333904981613159e-02 -2.648704349994659424e-01
2.169290781021118164e-01 2.413321584463119507e-01 -2.234767675399780273e-01
1.615924239158630371e-01 -1.843800991773605347e-01 -2.096239030361175537e-01
2.328723520040512085e-01 -2.057478874921798706e-01 2.330024242401123047e-01
2.707487344741821289e-01 -2.858148813247680664e-01 1.035794913768768311e-01
2.452519237995147705e-01 -3.064351975917816162e-01 1.208512634038925171e-01
2.737730443477630615e-01 -2.614774107933044434e-01 1.750569045543670654e-01
1.976680606603622437e-01 2.188150733709335327e-01 -1.991060227155685425e-01
1.474786400794982910e-01 6.293848156929016113e-02 2.196725755929946899e-01
1.346285492181777954e-01 -2.003163248300552368e-01 -2.008685469627380371e-01
2.606197297573089600e-01 -3.196538388729095459e-01 3.198409453034400940e-02
1.411705464124679565e-01 9.019263088703155518e-02 2.069591879844665527e-01
2.111676931381225586e-01 1.647407859563827515e-01 1.948689371347427368e-01
2.014261782169342041e-01 1.959721297025680542e-01 -2.410246580839157104e-01
1.469698995351791382e-01 6.779070943593978882e-02 2.347634732723236084e-01
2.459030002355575562e-01 -3.026078939437866211e-01 -8.076649904251098633e-02
1.455609500408172607e-01 -1.846399158239364624e-01 -2.082752883434295654e-01
2.793278694152832031e-01 2.073426842689514160e-01 -1.985720098018646240e-01
2.402033954858779907e-01 2.118002474308013916e-01 1.553426831960678101e-01
2.451108694076538086e-01 -3.239263296127319336e-01 -6.284578889608383179e-02
1.452495306730270386e-01 -1.569506973028182983e-01 -1.977348625659942627e-01
3.319550156593322754e-01 2.627973556518554688e-01 -1.480274647474288940e-01
2.372526228427886963e-01 -5.102722346782684326e-02 -2.246693372726440430e-01
1.718709021806716919e-01 1.395484209060668945e-01 -2.316742986440658569e-01
1.401365399360656738e-01 -2.176028788089752197e-01 -1.941912174224853516e-01
2.438124418258666992e-01 -3.428245186805725098e-01 2.926428243517875671e-02
3.046275973320007324e-01 2.234573960304260254e-01 -1.613851785659790039e-01
2.243138551712036133e-01 -3.317951261997222900e-01 1.595461964607238770e-01
1.275708526372909546e-01 1.350683271884918213e-01 2.303184866905212402e-01
3.083400130271911621e-01 -2.455736398696899414e-01 6.408530473709106445e-02
1.913957446813583374e-01 6.266377121210098267e-02 -2.524072825908660889e-01
1.853893548250198364e-01 -1.432661116123199463e-01 2.616158425807952881e-01
1.261787116527557373e-01 -2.659853696823120117e-01 -1.647040396928787231e-01
2.475819587707519531e-01 -3.529555797576904297e-01 -3.674171492457389832e-02
1.553808450698852539e-01 -5.565903335809707642e-02 -2.275533825159072876e-01
1.650196611881256104e-01 -1.311799734830856323e-01 -2.283933609724044800e-01
2.516361474990844727e-01 2.262488305568695068e-01 -1.690742224454879761e-01
1.277037560939788818e-01 1.570423692464828491e-01 2.122741490602493286e-01
3.564408421516418457e-01 2.731306850910186768e-01 -1.118360608816146851e-01
1.965479701757431030e-01 -1.152873858809471130e-01 -2.225397527217864990e-01
1.572601199150085449e-01 -4.964474216103553772e-02 -2.133344262838363647e-01
1.864314675331115723e-01 1.832626461982727051e-01 -2.166600227355957031e-01
2.047781646251678467e-01 2.139035761356353760e-01 1.686219722032546997e-01
2.502399682998657227e-01 1.666014492511749268e-01 -1.852190494537353516e-01
4.004416465759277344e-01 2.497372478246688843e-01 -5.798653140664100647e-02
3.542298376560211182e-01 3.136954605579376221e-01 -5.162220448255538940e-02
4.157492518424987793e-01 1.923190057277679443e-01 -1.823532208800315857e-02
2.564274370670318604e-01 -2.841371595859527588e-01 1.766606122255325317e-01
2.927503585815429688e-01 2.572617530822753906e-01 8.768250048160552979e-02
1.851712167263031006e-01 -1.422034353017807007e-01 -2.193894088268280029e-01
2.440058588981628418e-01 -1.330789327621459961e-01 2.406514585018157959e-01
1.904091536998748779e-01 1.950761079788208008e-01 -2.052235007286071777e-01
2.585165500640869141e-01 2.830404639244079590e-01 8.862756192684173584e-02
2.246652543544769287e-01 -3.212608695030212402e-01 1.949765980243682861e-01
2.316188514232635498e-01 2.024746537208557129e-01 -2.234418392181396484e-01
1.571387350559234619e-01 1.007397323846817017e-01 2.423160076141357422e-01
2.424040138721466064e-01 -3.374769687652587891e-01 -5.296456441283226013e-02
1.789418011903762817e-01 -1.241379231214523315e-01 -2.308358252048492432e-01
1.778042763471603394e-01 2.246430069208145142e-01 1.779377162456512451e-01
1.667079776525497437e-01 -2.850922569632530212e-02 -2.557334303855895996e-01
1.515223383903503418e-01 -4.535140842199325562e-02 -2.408980429172515869e-01
3.048261106014251709e-01 2.239643037319183350e-01 -1.352542191743850708e-01
1.701504588127136230e-01 -1.045181006193161011e-01 2.694090008735656738e-01
2.028248757123947144e-01 -2.910375595092773438e-01 2.296729683876037598e-01
1.523756533861160278e-01 -7.053870707750320435e-02 2.744315564632415771e-01
2.178068906068801880e-01 -3.321860432624816895e-01 -7.236729562282562256e-02
1.455358266830444336e-01 2.729777805507183075e-02 -2.665744423866271973e-01
1.312867254018783569e-01 1.190320625901222229e-01 2.266518175601959229e-01
2.089205384254455566e-01 -2.238027453422546387e-01 2.395791262388229370e-01
1.390787512063980103e-01 9.653235971927642822e-02 2.414239794015884399e-01
3.692858815193176270e-01 2.679661214351654053e-01 -1.163253188133239746e-02
1.600068360567092896e-01 1.054423023015260696e-02 2.312625646591186523e-01
1.542172431945800781e-01 4.419587180018424988e-02 -2.662864029407501221e-01
3.718153238296508789e-01 2.755513191223144531e-01 -2.580298110842704773e-02
1.372504085302352905e-01 -3.508623316884040833e-02 2.694438695907592773e-01
1.898259371519088745e-01 -3.112855851650238037e-01 2.315605431795120239e-01
2.021964192390441895e-01 2.322541922330856323e-01 -1.920997500419616699e-01
1.925792545080184937e-01 -1.052092239260673523e-01 2.630864977836608887e-01
2.592332959175109863e-01 -2.590776383876800537e-01 2.108964473009109497e-01
1.540253162384033203e-01 -1.361547559499740601e-01 -1.971777379512786865e-01
2.068625539541244507e-01 -3.498640954494476318e-01 1.778043657541275024e-01
2.358787357807159424e-01 -3.640947937965393066e-01 -8.389105089008808136e-03
1.570528745651245117e-01 5.393815226852893829e-03 2.460799068212509155e-01
1.931689232587814331e-01 -3.213069438934326172e-01 -9.566269814968109131e-02
2.556460499763488770e-01 -3.097919523715972900e-01 6.028105691075325012e-02
3.588368594646453857e-01 2.713028788566589355e-01 8.242614567279815674e-04
2.488997429609298706e-01 -3.224922418594360352e-01 7.696754485368728638e-02
3.292986750602722168e-01 2.815973162651062012e-01 -1.417437791824340820e-01
1.533463895320892334e-01 -8.672855794429779053e-02 2.732653319835662842e-01
1.691369861364364624e-01 1.752899736166000366e-01 2.012452185153961182e-01
2.675107717514038086e-01 -3.244213461875915527e-01 -4.843507334589958191e-02
1.366461962461471558e-01 -5.047617852687835693e-02 2.753557264804840088e-01
2.784470617771148682e-01 -2.997875213623046875e-01 1.828834600746631622e-02
1.759678125381469727e-01 1.989698410034179688e-01 1.920258700847625732e-01
3.687283992767333984e-01 2.961693406105041504e-01 -8.395655453205108643e-02
3.053937554359436035e-01 3.000106811523437500e-01 -1.477850079536437988e-01
1.326250433921813965e-01 -5.158004164695739746e-02 2.497653961181640625e-01
1.390712857246398926e-01 -7.751472294330596924e-02 2.791929841041564941e-01
1.326560676097869873e-01 -1.954351067543029785e-01 -1.647060215473175049e-01
2.153586596250534058e-01 1.363239139318466187e-01 -2.056429684162139893e-01
3.715882301330566406e-01 2.537176012992858887e-01 -1.037452965974807739e-01
2.298635393381118774e-01 -2.586374878883361816e-01 -1.279064565896987915e-01
1.692890673875808716e-01 -3.259564042091369629e-01 -1.045046001672744751e-01
2.531950771808624268e-01 2.610941827297210693e-01 -1.555987596511840820e-01
1.517553031444549561e-01 -1.651240885257720947e-01 -1.766200065612792969e-01
2.169136404991149902e-01 1.949485540390014648e-01 -2.379998266696929932e-01
2.466224133968353271e-01 -3.531770408153533936e-01 -2.035535685718059540e-02
1.545879840850830078e-01 -1.458177864551544189e-01 -1.844978928565979004e-01
2.975131273269653320e-01 2.094860523939132690e-01 -1.441331356763839722e-01
1.990908831357955933e-01 -2.765676975250244141e-01 2.338701188564300537e-01
1.423105150461196899e-01 1.090062558650970459e-01 1.995614469051361084e-01
2.997109889984130859e-01 1.977035999298095703e-01 -1.313282698392868042e-01
2.798391282558441162e-01 2.834587693214416504e-01 -1.745442897081375122e-01
2.577551007270812988e-01 -3.357992172241210938e-01 -1.140755414962768555e-02
2.188502550125122070e-01 2.004133015871047974e-01 -1.922504603862762451e-01
2.182069718837738037e-01 -2.056000679731369019e-01 -1.718788743019104004e-01
1.423827856779098511e-01 1.765494495630264282e-01 2.120740115642547607e-01
3.495481908321380615e-01 2.948695421218872070e-01 -1.540538482367992401e-02
1.610133796930313110e-01 -1.461128145456314087e-01 -2.233300507068634033e-01
1.493039131164550781e-01 -1.881328076124191284e-01 -1.656708568334579468e-01
1.524012684822082520e-01 -1.689431667327880859e-01 -2.147807627916336060e-01
1.308887302875518799e-01 -1.824723929166793823e-01 -1.736011505126953125e-01
1.547324955463409424e-01 -2.040721476078033447e-01 -2.001161575317382812e-01
1.294813454151153564e-01 -1.251093149185180664e-01 2.766133248805999756e-01
2.693147361278533936e-01 2.466609925031661987e-01 -1.981373280286788940e-01
2.666938900947570801e-01 2.472074180841445923e-01 -1.747713387012481689e-01
3.715730607509613037e-01 2.930632531642913818e-01 -5.095397308468818665e-02
1.891345381736755371e-01 1.905429959297180176e-01 1.877742111682891846e-01
2.706531584262847900e-01 1.528024906292557716e-03 2.237014919519424438e-01
2.685075402259826660e-01 2.874063551425933838e-01 7.763164490461349487e-02
2.347896397113800049e-01 -3.296968340873718262e-01 1.177938729524612427e-01
2.537553012371063232e-01 -2.935203611850738525e-01 1.264226138591766357e-01
1.361001282930374146e-01 3.561846539378166199e-02 -2.572241723537445068e-01
1.696193069219589233e-01 -1.662887036800384521e-01 -1.718737483024597168e-01
2.352150529623031616e-01 -3.586580157279968262e-01 1.386049669235944748e-02
1.456272453069686890e-01 1.411082446575164795e-01 2.289840877056121826e-01
2.292859405279159546e-01 -3.740267455577850342e-01 -3.033862635493278503e-02
1.558813154697418213e-01 1.825826764106750488e-01 2.074276059865951538e-01
1.728181391954421997e-01 -5.658033303916454315e-03 2.702610194683074951e-01
1.917761117219924927e-01 4.349995404481887817e-02 -2.517549991607666016e-01
1.237774714827537537e-01 -2.535673379898071289e-01 -1.777399480342864990e-01
2.445011436939239502e-01 2.611155807971954346e-01 -2.052992582321166992e-01
1.551982462406158447e-01 3.834522515535354614e-02 2.230906188488006592e-01
2.914187908172607422e-01 2.007758468389511108e-01 1.322856843471527100e-01
1.853358596563339233e-01 -1.861866712570190430e-01 2.553537786006927490e-01
1.918349117040634155e-01 -1.604660153388977051e-01 -1.674853265285491943e-01
3.228136897087097168e-01 2.749314606189727783e-01 4.434701800346374512e-02
3.199314773082733154e-01 2.914030253887176514e-01 7.853733375668525696e-03
1.716213524341583252e-01 -1.717637628316879272e-01 -2.124958485364913940e-01
1.644942164421081543e-01 1.170907691121101379e-01 -2.234722971916198730e-01
1.480876207351684570e-01 7.608965784311294556e-02 2.109363079071044922e-01
2.657122611999511719e-01 2.000133842229843140e-01 -1.688526272773742676e-01
1.193881034851074219e-01 -2.955966591835021973e-01 -1.477455645799636841e-01
1.737888753414154053e-01 -9.418541938066482544e-02 -2.394649982452392578e-01
2.238561660051345825e-01 2.715809047222137451e-01 -2.098844647407531738e-01
1.590836942195892334e-01 2.657833509147167206e-02 2.333301156759262085e-01
1.457115113735198975e-01 -1.265991181135177612e-01 2.735396325588226318e-01
2.808491587638854980e-01 2.769635915756225586e-01 7.872849702835083008e-02
1.927379816770553589e-01 1.275533884763717651e-01 -2.144748866558074951e-01
2.816563248634338379e-01 2.033852189779281616e-01 -1.577871292829513550e-01
2.143767476081848145e-01 -3.435325026512145996e-01 1.648440062999725342e-01
1.516439020633697510e-01 -2.975142598152160645e-01 -1.347220838069915771e-01
1.862251907587051392e-01 2.488708496093750000e-01 1.584825962781906128e-01
1.667191237211227417e-01 -2.926260828971862793e-01 -1.319257467985153198e-01
1.746643483638763428e-01 -1.507323831319808960e-01 -1.776615828275680542e-01
1.498874425888061523e-01 -3.126080632209777832e-01 -1.241550371050834656e-01
1.468593329191207886e-01 1.414718478918075562e-01 1.846725046634674072e-01
1.081996262073516846e-01 -9.767054766416549683e-02 2.759602069854736328e-01
2.879679799079895020e-01 1.701971590518951416e-01 -1.181493401527404785e-01
1.390259861946105957e-01 -4.147836193442344666e-02 2.398036569356918335e-01
1.633432507514953613e-01 -2.800391018390655518e-01 -1.428086161613464355e-01
1.798626184463500977e-01 -3.001565337181091309e-01 2.376579344272613525e-01
1.787523180246353149e-01 -1.276626884937286377e-01 2.654237449169158936e-01
3.336969614028930664e-01 3.082243204116821289e-01 -8.885264396667480469e-04
3.171031177043914795e-01 2.951986491680145264e-01 -1.383936703205108643e-01
1.555002033710479736e-01 4.022493213415145874e-02 2.407922744750976562e-01
1.509947478771209717e-01 2.076463103294372559e-01 1.733007133007049561e-01
1.427424252033233643e-01 5.377163738012313843e-02 -2.561754584312438965e-01
2.170670777559280396e-01 2.392304092645645142e-01 1.466123163700103760e-01
1.670932322740554810e-01 -1.130830645561218262e-01 -2.296172678470611572e-01
1.704283952713012695e-01 -1.426567435264587402e-01 2.661429047584533691e-01
2.536229193210601807e-01 1.470647752285003662e-01 -1.868960261344909668e-01
1.273058801889419556e-01 -5.992673337459564209e-02 2.616515755653381348e-01
3.639926910400390625e-01 2.829108238220214844e-01 -9.802718460559844971e-02
3.664042949676513672e-01 3.051089942455291748e-01 -6.139418482780456543e-02
2.384292185306549072e-01 2.423767596483230591e-01 -2.154624313116073608e-01
1.922097802162170410e-01 -1.519849002361297607e-01 -2.095105051994323730e-01
3.129407167434692383e-01 2.371397316455841064e-01 -1.304617971181869507e-01
1.269552409648895264e-01 -3.115488290786743164e-01 -1.342312395572662354e-01
1.594082415103912354e-01 1.535249650478363037e-01 2.141085863113403320e-01
2.207453250885009766e-01 2.121222615242004395e-01 -2.322227060794830322e-01
2.149218469858169556e-01 -3.285194039344787598e-01 2.151306718587875366e-01
1.493749171495437622e-01 -1.522071510553359985e-01 -2.138872742652893066e-01
1.500085890293121338e-01 3.337379544973373413e-02 -2.262412756681442261e-01
1.499744504690170288e-01 5.725516472011804581e-03 -2.236237525939941406e-01
2.295633107423782349e-01 -3.075377643108367920e-01 -8.642199635505676270e-02
1.814408600330352783e-01 1.171145960688591003e-01 -2.187823057174682617e-01
1.725653409957885742e-01 -3.369728922843933105e-01 -9.385375678539276123e-02
2.477539330720901489e-01 -3.196735382080078125e-01 9.226336330175399780e-02
1.675763726234436035e-01 2.462155818939208984e-01 1.624584794044494629e-01
2.267493754625320435e-01 -3.422463536262512207e-01 8.159099519252777100e-02
1.620841920375823975e-01 -3.172256350517272949e-01 -1.150095313787460327e-01
2.170544266700744629e-01 2.231268733739852905e-01 -1.868957877159118652e-01
1.148224472999572754e-01 -1.251308619976043701e-01 2.818343043327331543e-01
2.383503317832946777e-01 2.476536482572555542e-01 -1.688924729824066162e-01
2.055672407150268555e-01 1.872762143611907959e-01 1.844919919967651367e-01
1.261112540960311890e-01 -2.795762121677398682e-01 -1.561669409275054932e-01
1.731582283973693848e-01 -3.065895438194274902e-01 -1.180607974529266357e-01
1.346423923969268799e-01 1.622886210680007935e-02 -2.282430231571197510e-01
1.642158180475234985e-01 -7.864253968000411987e-02 -2.060809433460235596e-01
2.429194003343582153e-01 2.382541894912719727e-01 1.353792250156402588e-01
1.461287438869476318e-01 1.981202363967895508e-01 1.847760975360870361e-01
2.207673490047454834e-01 -2.976332008838653564e-01 -1.000560522079467773e-01
1.742913275957107544e-01 -6.262396275997161865e-02 -2.069216668605804443e-01
2.133381068706512451e-01 -3.757587075233459473e-01 -3.838788717985153198e-02
2.432057112455368042e-01 2.785593867301940918e-01 -2.014386057853698730e-01
2.678109109401702881e-01 2.755997776985168457e-01 -1.606042236089706421e-01
2.088339924812316895e-01 -1.536011546850204468e-01 -1.638494133949279785e-01
1.230560317635536194e-01 -7.194770127534866333e-02 2.765064537525177002e-01
2.853212356567382812e-01 1.677189767360687256e-01 -1.030817329883575439e-01
2.688191533088684082e-01 2.694078683853149414e-01 9.443521499633789062e-02
3.103744387626647949e-01 2.676802575588226318e-01 -1.294289827346801758e-01
2.748693823814392090e-01 1.271384358406066895e-01 -1.438510715961456299e-01
1.598531901836395264e-01 -6.871442496776580811e-02 -2.177399247884750366e-01
1.577908694744110107e-01 1.997018419206142426e-02 -2.237009406089782715e-01
1.084993034601211548e-01 -2.242281585931777954e-01 -1.563202738761901855e-01
1.302892565727233887e-01 -1.083563938736915588e-01 2.816601395606994629e-01
1.568052619695663452e-01 9.968103468418121338e-02 -2.296658009290695190e-01
1.516929864883422852e-01 -2.668388374149799347e-02 2.352256178855895996e-01
1.788983494043350220e-01 -8.443709462881088257e-02 -2.001744508743286133e-01
2.907774150371551514e-01 1.707838177680969238e-01 -1.408354043960571289e-01
3.871452808380126953e-01 2.744796574115753174e-01 -5.771846324205398560e-02
1.513930261135101318e-01 -5.875220987945795059e-03 2.550222277641296387e-01
1.793494075536727905e-01 -4.800115898251533508e-02 -2.089467346668243408e-01
2.807561755180358887e-01 2.680726945400238037e-01 3.645418956875801086e-02
2.401690930128097534e-01 -3.364121615886688232e-01 6.892432272434234619e-02
2.629265785217285156e-01 2.617234587669372559e-01 -1.682755202054977417e-01
1.331586241722106934e-01 1.100377887487411499e-01 2.135763466358184814e-01
2.317226231098175049e-01 -2.645098976790904999e-02 -2.316288948059082031e-01
1.629007011651992798e-01 -1.289513707160949707e-01 2.694739401340484619e-01
3.364424407482147217e-01 3.168077766895294189e-01 -2.729742601513862610e-02
2.628876864910125732e-01 -4.599737748503684998e-02 2.332448661327362061e-01
1.960793286561965942e-01 -3.641744852066040039e-01 1.482697725296020508e-01
3.375334441661834717e-01 2.749008536338806152e-01 -1.302668452262878418e-01
1.636248528957366943e-01 -1.311275362968444824e-02 2.310335934162139893e-01
2.376423776149749756e-01 -3.159728646278381348e-01 -7.428818196058273315e-02
2.689237296581268311e-01 1.627757251262664795e-01 -1.755921691656112671e-01
2.383203804492950439e-01 1.536657810211181641e-01 -1.933970898389816284e-01
1.637930870056152344e-01 -7.730324752628803253e-03 -2.601723074913024902e-01
3.238885104656219482e-01 3.041522502899169922e-01 -1.277277767658233643e-01
2.279912531375885010e-01 -3.375120460987091064e-01 -6.171468645334243774e-02
1.266904026269912720e-01 -1.943781673908233643e-01 -1.843039542436599731e-01
2.860496938228607178e-01 1.779027283191680908e-01 -7.626605778932571411e-02
2.399437725543975830e-01 -3.319444656372070312e-01 8.570668101310729980e-02
3.423856198787689209e-01 2.911808192729949951e-01 -1.433990546502172947e-04
1.919740587472915649e-01 -2.633460760116577148e-01 2.392546236515045166e-01
1.567718684673309326e-01 2.222668677568435669e-01 1.703270077705383301e-01
1.475994288921356201e-01 -2.027866542339324951e-01 -1.578357815742492676e-01
3.234121203422546387e-01 2.882934212684631348e-01 3.656930476427078247e-02
3.173212110996246338e-01 3.396225571632385254e-01 -3.554698079824447632e-02
1.984462141990661621e-01 2.831924259662628174e-01 1.264992654323577881e-01
3.224636316299438477e-01 2.634211480617523193e-01 5.481233447790145874e-02
1.326070427894592285e-01 2.801087126135826111e-02 -2.411688417196273804e-01
1.975701749324798584e-01 2.140339314937591553e-01 -2.138866186141967773e-01
3.084084987640380859e-01 2.674916684627532959e-01 6.464335322380065918e-02
1.506894528865814209e-01 8.221595734357833862e-02 -2.330449819564819336e-01
1.904331743717193604e-01 -3.050772547721862793e-01 -1.105423271656036377e-01
2.235956788063049316e-01 -1.698168218135833740e-01 2.437349557876586914e-01
3.126180171966552734e-01 2.872042953968048096e-01 4.812674224376678467e-02
2.463673204183578491e-01 -2.967278957366943359e-01 1.795318126678466797e-01
3.440837264060974121e-01 2.864716053009033203e-01 -1.179773584008216858e-01
1.152322292327880859e-01 -2.166716754436492920e-01 -1.776246279478073120e-01
1.849210411310195923e-01 -2.398213446140289307e-01 2.463617622852325439e-01
1.754725277423858643e-01 6.382333487272262573e-02 -2.221092581748962402e-01
3.040044307708740234e-01 2.832677960395812988e-01 -1.427342742681503296e-01
2.117049694061279297e-01 -3.515529036521911621e-01 1.491461247205734253e-01
2.269304096698760986e-01 2.085001915693283081e-01 1.635080277919769287e-01
1.647768467664718628e-01 1.314780116081237793e-01 1.858715713024139404e-01
1.513451933860778809e-01 5.065399408340454102e-02 -2.269975543022155762e-01
2.609824240207672119e-01 3.008333444595336914e-01 6.928775459527969360e-02
1.848464906215667725e-01 -3.788259625434875488e-01 1.493883877992630005e-01
3.205662965774536133e-01 2.487363666296005249e-01 -1.375381648540496826e-01
2.097166478633880615e-01 2.520738244056701660e-01 -1.812646239995956421e-01
1.983940005302429199e-01 -1.950859129428863525e-01 2.490047365427017212e-01
2.181126177310943604e-01 3.009594082832336426e-01 1.039444878697395325e-01
3.326995372772216797e-01 3.126670420169830322e-01 -1.146312654018402100e-01
2.502192854881286621e-01 2.796896994113922119e-01 -1.495331972837448120e-01
3.160939812660217285e-01 3.276882767677307129e-01 -1.547898724675178528e-02
1.541594415903091431e-01 8.686690032482147217e-02 -2.482798695564270020e-01
1.889316737651824951e-01 1.576944291591644287e-01 -2.118063420057296753e-01
2.051262259483337402e-01 -8.812896162271499634e-02 -1.909696310758590698e-01
2.977108955383300781e-01 -2.542403042316436768e-01 8.824689686298370361e-02
2.856919169425964355e-01 1.858870536088943481e-01 -1.597513556480407715e-01
1.597702354192733765e-01 6.673499941825866699e-02 -2.257681936025619507e-01
1.712180525064468384e-01 1.028712391853332520e-01 -2.224338203668594360e-01
2.520129084587097168e-01 2.510268688201904297e-01 1.205363273620605469e-01
1.620874851942062378e-01 2.031273581087589264e-02 -2.628470659255981445e-01
1.741774082183837891e-01 7.022252678871154785e-02 2.080610990524291992e-01
1.546653807163238525e-01 -1.078492924571037292e-01 2.726342678070068359e-01
1.450564265251159668e-01 -2.616193518042564392e-02 -2.539643645286560059e-01
1.801514625549316406e-01 -1.595516055822372437e-01 2.611070871353149414e-01
1.939887553453445435e-01 6.509874761104583740e-02 -2.170421332120895386e-01
2.200395762920379639e-01 2.821274101734161377e-01 -1.885607540607452393e-01
1.678746640682220459e-01 -8.080332726240158081e-02 2.703366875648498535e-01
1.672848165035247803e-01 -1.949132978916168213e-02 -2.168998867273330688e-01
2.928622663021087646e-01 1.939839571714401245e-01 -8.348827064037322998e-02
2.808386087417602539e-01 1.694210469722747803e-01 -1.667966544628143311e-01
2.910198569297790527e-01 1.944665461778640747e-01 -6.580113619565963745e-02
9.416408836841583252e-02 -1.254298090934753418e-01 2.757340371608734131e-01
2.317928373813629150e-01 2.562438249588012695e-01 -2.140671312808990479e-01
1.684421300888061523e-01 2.132898569107055664e-01 1.870119869709014893e-01
1.256704926490783691e-01 1.396004557609558105e-01 1.902512162923812866e-01
3.135237097740173340e-01 2.525551021099090576e-01 -1.127751022577285767e-01
3.051111102104187012e-01 2.239107042551040649e-01 -9.315358847379684448e-02
1.782224923372268677e-01 -2.832846939563751221e-01 2.413176149129867554e-01
1.718080937862396240e-01 4.381033033132553101e-02 -2.223766744136810303e-01
1.696641445159912109e-01 -2.688851654529571533e-01 2.472742348909378052e-01
2.940036058425903320e-01 2.524762153625488281e-01 3.558561205863952637e-02
1.341725587844848633e-01 1.005562860518693924e-02 -2.561572790145874023e-01
2.020652592182159424e-01 2.028361409902572632e-01 -1.983281672000885010e-01
3.281299769878387451e-01 3.154681622982025146e-01 -1.355914678424596786e-02
2.911789715290069580e-01 2.241830080747604370e-01 -1.925414502620697021e-01
1.483260989189147949e-01 1.952527463436126709e-01 2.008002102375030518e-01
2.337892800569534302e-01 2.896778583526611328e-01 9.701442718505859375e-02
1.239098682999610901e-01 -9.279833734035491943e-02 2.790703475475311279e-01
1.905120909214019775e-01 9.795255959033966064e-02 -2.174059748649597168e-01
3.490167260169982910e-01 2.980406284332275391e-01 -1.064358651638031006e-01
9.240227937698364258e-02 -1.331119537353515625e-01 2.614990174770355225e-01
3.419534564018249512e-01 3.305959403514862061e-01 -5.885158106684684753e-02
2.261010706424713135e-01 -3.476855456829071045e-01 6.548707187175750732e-02
2.366580665111541748e-01 9.154271334409713745e-02 -2.006877362728118896e-01
3.564400374889373779e-01 3.140848278999328613e-01 -8.711646497249603271e-02
3.504051864147186279e-01 3.271931111812591553e-01 -7.544064521789550781e-02
1.004637330770492554e-01 -1.167149022221565247e-01 2.623127698898315430e-01
2.250335067510604858e-01 -3.303010463714599609e-01 1.316848695278167725e-01
2.032577395439147949e-01 2.941014766693115234e-01 1.148481667041778564e-01
1.299431473016738892e-01 -1.060545742511749268e-01 2.430676668882369995e-01
2.856390178203582764e-01 2.807272672653198242e-01 -1.315253823995590210e-01
1.434919983148574829e-01 -1.780494302511215210e-02 -2.386246025562286377e-01
1.098678931593894958e-01 -2.652957141399383545e-01 -1.716417968273162842e-01
1.449542492628097534e-01 6.718806177377700806e-02 -2.317758798599243164e-01
